ply
format ascii 1.0
element vertex 2708
property float x
property float y
property float z
end_header
-8.85 10.14 -5.75
-8.60 10.07 -5.71
-4.43 8.35 -4.73
-3.78 7.66 -4.34
-3.58 7.35 -4.17
-3.42 7.17 -4.06
-3.13 6.90 -3.91
-3.05 6.87 -3.89
-2.95 6.91 -3.92
-3.25 8.40 -4.76
-2.47 12.54 -7.10
-2.17 13.58 -7.70
-2.15 15.02 -8.51
-2.06 15.43 -8.75
-1.96 17.32 -9.81
-1.44 17.99 -10.20
-1.21 17.29 -9.80
-1.08 17.04 -9.66
-0.74 15.81 -8.96
-0.62 15.56 -8.82
-0.40 15.04 -8.52
-0.35 15.01 -8.51
0.40 13.40 -7.59
0.88 13.20 -7.48
1.32 14.17 -8.03
1.45 14.54 -8.24
1.82 16.02 -9.08
1.90 16.30 -9.24
3.80 21.53 -12.20
3.90 21.66 -12.27
3.97 21.68 -12.29
4.58 20.80 -11.79
6.41 21.14 -11.98
6.52 21.26 -12.05
6.96 21.30 -12.07
7.55 21.57 -12.22
7.63 21.60 -12.24
9.79 16.22 -9.19
8.44 9.71 -5.50
8.61 9.42 -5.34
9.62 10.17 -5.76
11.30 11.41 -6.47
13.63 12.62 -7.15
13.73 11.94 -6.76
13.09 10.70 -6.06
13.63 10.96 -6.21
14.71 11.43 -6.48
14.92 11.42 -6.47
15.22 11.53 -6.53
17.22 11.58 -6.56
16.83 11.22 -6.36
63.65 33.44 -18.95
-18.14 12.93 -7.28
-15.44 11.32 -6.38
-13.26 9.92 -5.59
-12.42 9.39 -5.29
-11.91 9.07 -5.11
-10.88 8.43 -4.75
-10.61 8.25 -4.65
-9.91 7.89 -4.44
-9.59 7.82 -4.41
-8.34 7.11 -4.00
-8.01 7.02 -3.96
-7.88 7.00 -3.94
-7.84 7.00 -3.94
-7.77 7.00 -3.95
-7.62 7.35 -4.14
-8.74 8.77 -4.94
-8.79 8.88 -5.00
-8.86 9.07 -5.11
-9.08 9.49 -5.35
-9.68 10.33 -5.82
-10.00 10.75 -6.06
-9.51 10.60 -5.97
-8.87 10.08 -5.68
-8.51 9.98 -5.62
-4.36 8.22 -4.63
-3.69 7.47 -4.21
-3.51 7.21 -4.06
-3.34 7.01 -3.95
-3.06 6.74 -3.80
-2.99 6.74 -3.80
-2.91 6.81 -3.84
-3.22 8.32 -4.68
-2.51 12.74 -7.18
-2.23 13.96 -7.87
-2.19 15.29 -8.61
-2.08 15.62 -8.80
-1.99 17.57 -9.90
-1.60 18.45 -10.39
-1.45 18.15 -10.23
-1.22 17.44 -9.83
-1.09 17.17 -9.67
-0.93 16.35 -9.21
-0.73 15.68 -8.84
-0.62 15.40 -8.67
-0.40 14.88 -8.38
0.40 13.34 -7.52
0.87 13.03 -7.34
1.32 14.14 -7.96
1.46 14.56 -8.20
1.85 16.32 -9.19
4.01 21.88 -12.32
4.61 21.28 -11.99
6.53 21.30 -12.00
6.97 21.35 -12.03
7.65 21.64 -12.19
9.80 16.25 -9.15
8.46 9.73 -5.48
8.64 9.46 -5.33
9.62 10.17 -5.73
11.27 11.39 -6.41
13.76 12.74 -7.18
13.83 12.03 -6.78
13.29 10.86 -6.12
13.75 11.06 -6.23
14.70 11.43 -6.44
14.90 11.40 -6.42
15.20 11.49 -6.47
17.19 11.57 -6.52
16.80 11.20 -6.31
64.06 33.72 -18.99
64.41 33.84 -19.06
-17.42 12.44 -6.97
-17.18 12.30 -6.89
-15.22 11.16 -6.25
-13.15 9.84 -5.51
-12.21 9.25 -5.18
-12.04 9.15 -5.12
-11.86 9.03 -5.06
-10.56 8.21 -4.60
-9.86 7.85 -4.39
-9.61 7.86 -4.40
-8.05 7.06 -3.96
-7.92 7.03 -3.94
-7.85 7.03 -3.94
-7.81 7.04 -3.94
-7.60 7.33 -4.11
-7.68 7.43 -4.16
-8.70 8.73 -4.89
-8.84 9.08 -5.08
-9.07 9.48 -5.31
-9.64 10.29 -5.76
-9.97 10.72 -6.00
-9.51 10.60 -5.94
-9.31 10.42 -5.84
-9.16 10.29 -5.76
-9.04 10.19 -5.71
-8.80 10.03 -5.62
-8.45 9.90 -5.54
-4.30 8.11 -4.54
-3.62 7.33 -4.10
-3.45 7.09 -3.97
-3.33 6.93 -3.88
-3.00 6.62 -3.71
-2.94 6.62 -3.71
-2.86 6.71 -3.76
-3.17 8.20 -4.59
-2.58 13.14 -7.36
-2.30 14.38 -8.05
-2.21 15.43 -8.64
-2.10 15.73 -8.81
-2.01 17.70 -9.91
-1.61 18.55 -10.39
-1.46 18.28 -10.23
-1.23 17.57 -9.84
-1.09 17.25 -9.66
-0.93 16.46 -9.22
-0.86 16.15 -9.04
-0.79 15.89 -8.90
-0.62 15.39 -8.62
-0.40 14.82 -8.30
0.40 13.28 -7.44
0.86 12.93 -7.24
1.32 14.15 -7.93
1.54 14.91 -8.35
1.86 16.41 -9.19
4.03 21.98 -12.31
4.67 21.56 -12.07
6.55 21.36 -11.96
7.00 21.42 -11.99
9.87 16.45 -9.21
8.51 9.79 -5.48
8.63 9.45 -5.29
9.60 10.14 -5.68
10.14 10.56 -5.91
11.20 11.32 -6.34
13.89 12.86 -7.20
13.95 12.13 -6.79
13.38 10.94 -6.13
13.81 11.10 -6.22
14.68 11.41 -6.39
14.94 11.40 -6.39
15.10 11.41 -6.39
17.19 11.56 -6.48
16.81 11.21 -6.28
65.18 34.25 -19.18
-16.85 12.06 -6.72
-16.67 11.96 -6.66
-14.96 10.97 -6.11
-14.82 10.89 -6.06
-11.81 8.99 -5.01
-10.55 8.20 -4.57
-10.20 7.97 -4.44
-10.09 7.92 -4.41
-9.85 7.83 -4.36
-9.51 7.77 -4.33
-8.44 7.20 -4.01
-8.10 7.11 -3.96
-7.97 7.07 -3.94
-7.95 7.07 -3.94
-7.89 7.07 -3.94
-7.84 7.06 -3.93
-7.64 7.40 -4.12
-8.65 8.68 -4.83
-8.82 9.06 -5.04
-9.95 10.70 -5.96
-9.50 10.59 -5.90
-9.02 10.17 -5.66
-8.81 10.01 -5.57
-8.73 10.00 -5.57
-8.70 10.00 -5.57
-8.39 9.83 -5.47
-4.28 8.07 -4.49
-3.58 7.26 -4.04
-3.38 6.95 -3.87
-3.25 6.76 -3.76
-2.98 6.54 -3.64
-2.86 6.50 -3.62
-2.80 6.56 -3.65
-3.10 8.00 -4.46
-2.69 13.70 -7.63
-2.37 14.80 -8.24
-2.18 15.58 -8.67
-2.12 15.88 -8.84
-2.03 17.95 -9.99
-1.57 18.88 -10.51
-1.39 18.08 -10.07
-1.24 17.76 -9.89
-1.10 17.41 -9.69
-0.94 16.63 -9.26
-0.62 15.43 -8.59
-0.39 14.77 -8.22
0.40 13.27 -7.39
0.86 12.88 -7.17
1.32 14.15 -7.88
1.46 14.60 -8.13
1.85 16.34 -9.10
2.69 19.65 -10.94
4.08 21.84 -12.16
4.70 21.68 -12.07
6.58 21.47 -11.95
7.49 21.81 -12.14
7.54 21.76 -12.11
7.62 21.77 -12.12
7.70 21.79 -12.13
9.94 16.57 -9.22
8.61 9.89 -5.51
8.64 9.46 -5.26
9.61 10.15 -5.65
10.14 10.56 -5.88
11.16 11.27 -6.27
13.95 12.92 -7.19
14.09 12.26 -6.82
13.46 11.00 -6.12
13.74 11.08 -6.17
14.70 11.43 -6.36
14.89 11.36 -6.33
14.99 11.32 -6.30
17.16 11.54 -6.43
16.79 11.19 -6.23
65.27 34.53 -19.22
66.06 34.71 -19.32
-16.28 11.68 -6.47
-16.13 11.61 -6.42
-14.57 10.71 -5.93
-14.41 10.62 -5.88
-10.56 8.21 -4.54
-10.20 7.97 -4.41
-10.07 7.91 -4.38
-9.85 7.80 -4.32
-9.83 7.82 -4.33
-9.42 7.70 -4.26
-8.50 7.24 -4.01
-8.14 7.14 -3.95
-7.98 7.10 -3.93
-7.93 7.10 -3.93
-7.87 7.09 -3.92
-7.59 7.34 -4.06
-8.62 8.65 -4.79
-8.71 8.83 -4.89
-8.81 9.05 -5.01
-10.07 10.87 -6.01
-9.51 10.61 -5.87
-8.79 9.99 -5.53
-8.68 9.97 -5.52
-8.27 9.73 -5.39
-4.27 8.06 -4.46
-3.51 7.12 -3.94
-3.28 6.74 -3.73
-3.11 6.53 -3.61
-2.88 6.36 -3.52
-2.80 6.36 -3.52
-2.75 6.43 -3.56
-3.02 7.81 -4.32
-2.85 14.51 -8.03
-2.44 15.22 -8.42
-2.21 15.81 -8.75
-2.15 16.15 -8.93
-2.07 18.29 -10.12
-1.88 19.45 -10.76
-1.41 18.40 -10.18
-1.26 18.02 -9.97
-1.12 17.63 -9.76
-0.87 16.39 -9.07
-0.62 15.40 -8.52
-0.39 14.61 -8.08
0.40 13.34 -7.38
0.85 12.74 -7.05
1.31 14.06 -7.78
1.45 14.45 -8.00
1.94 16.65 -9.22
2.66 19.49 -10.78
4.09 21.90 -12.12
4.74 21.88 -12.11
6.63 21.61 -11.96
7.07 21.65 -11.98
7.16 21.69 -12.00
7.26 21.78 -12.05
7.40 21.97 -12.16
7.49 22.02 -12.18
7.74 21.92 -12.13
7.85 22.01 -12.18
7.98 22.16 -12.26
9.99 16.65 -9.21
8.65 9.95 -5.50
8.64 9.46 -5.23
9.62 10.16 -5.62
10.18 10.61 -5.87
11.19 11.31 -6.26
13.79 13.14 -7.27
13.90 13.12 -7.26
14.01 12.97 -7.18
14.22 12.36 -6.84
14.22 12.33 -6.82
13.57 11.09 -6.14
13.79 11.12 -6.16
14.78 11.48 -6.35
14.88 11.33 -6.27
14.91 11.29 -6.25
17.10 11.53 -6.38
17.09 11.50 -6.36
16.73 11.15 -6.17
66.56 35.22 -19.49
66.71 35.24 -19.50
66.69 35.16 -19.46
66.93 35.23 -19.49
67.44 35.43 -19.61
-15.87 11.42 -6.28
-15.73 11.35 -6.24
-14.21 10.47 -5.76
-10.53 8.19 -4.50
-10.13 7.93 -4.36
-9.83 7.78 -4.28
-9.69 7.73 -4.25
-9.47 7.76 -4.27
-8.52 7.27 -4.00
-8.11 7.14 -3.93
-7.99 7.11 -3.91
-7.94 7.11 -3.91
-7.88 7.10 -3.91
-7.54 7.29 -4.01
-8.67 8.73 -4.80
-8.75 8.90 -4.90
-8.79 8.97 -4.94
-10.11 10.91 -6.00
-8.68 9.98 -5.49
-8.27 9.73 -5.35
-4.26 8.04 -4.42
-3.42 6.93 -3.81
-3.19 6.55 -3.60
-3.04 6.39 -3.51
-2.85 6.28 -3.46
-2.81 6.28 -3.46
-2.77 6.29 -3.46
-2.72 6.43 -3.54
-2.77 6.98 -3.84
-2.82 7.16 -3.94
-2.89 7.42 -4.08
-2.96 7.67 -4.22
-8.76 30.22 -16.62
-8.98 31.32 -17.23
-9.26 32.67 -17.97
-9.62 34.37 -18.91
-3.28 15.86 -8.72
-3.04 15.44 -8.49
-2.48 15.51 -8.53
-2.24 16.01 -8.80
-2.18 16.35 -8.99
-2.11 18.60 -10.23
-1.92 19.87 -10.93
-1.43 18.69 -10.28
-1.28 18.28 -10.05
-1.05 17.46 -9.60
-0.62 15.53 -8.54
-0.39 14.60 -8.03
0.40 13.43 -7.38
0.83 12.48 -6.86
1.29 13.80 -7.59
1.41 14.14 -7.78
1.93 16.56 -9.11
2.07 17.29 -9.51
2.63 19.28 -10.60
3.66 21.54 -11.85
3.75 21.66 -11.91
3.94 21.88 -12.03
4.02 21.92 -12.06
4.71 21.73 -11.95
6.59 21.72 -11.95
7.10 21.73 -11.95
8.01 22.25 -12.24
10.06 16.77 -9.22
8.64 9.93 -5.46
8.62 9.44 -5.19
9.62 10.16 -5.59
10.21 10.64 -5.85
11.21 11.33 -6.23
13.96 13.26 -7.29
14.02 13.23 -7.27
14.15 13.11 -7.21
13.60 11.15 -6.13
13.80 11.13 -6.12
14.94 11.61 -6.39
14.94 11.38 -6.26
14.97 11.32 -6.22
16.98 11.45 -6.29
16.67 11.11 -6.11
68.41 36.00 -19.80
-15.59 11.25 -6.15
-15.43 11.16 -6.10
-10.58 8.22 -4.49
-10.33 8.05 -4.40
-9.73 7.76 -4.24
-9.41 7.71 -4.22
-9.00 7.52 -4.11
-8.56 7.30 -3.99
-8.14 7.16 -3.91
-8.01 7.13 -3.90
-7.96 7.13 -3.90
-7.47 7.23 -3.95
-7.56 7.34 -4.01
-8.66 8.71 -4.76
-8.80 8.98 -4.91
-10.13 10.94 -5.98
-8.69 9.98 -5.46
-8.28 9.74 -5.32
-4.98 7.73 -4.23
-4.23 7.99 -4.37
-3.33 6.75 -3.69
-3.12 6.41 -3.50
-3.00 6.29 -3.44
-2.82 6.22 -3.40
-2.78 6.23 -3.41
-2.75 6.24 -3.41
-2.72 6.28 -3.43
-2.71 6.40 -3.50
-2.93 7.59 -4.15
-3.65 17.37 -9.49
-3.48 16.86 -9.21
-3.19 16.20 -8.86
-2.50 15.64 -8.55
-2.25 16.07 -8.79
-2.14 18.91 -10.34
-1.96 20.27 -11.08
-1.45 18.93 -10.35
-0.63 15.72 -8.59
-0.39 14.70 -8.04
0.40 13.49 -7.37
0.83 12.46 -6.81
1.27 13.65 -7.46
1.40 14.00 -7.65
2.06 17.19 -9.40
2.59 18.96 -10.37
3.70 21.35 -11.67
3.80 21.51 -11.76
3.97 21.63 -11.82
4.64 21.41 -11.70
6.63 21.85 -11.94
7.12 21.79 -11.91
7.21 21.84 -11.94
7.45 22.12 -12.09
7.54 22.17 -12.12
7.58 22.08 -12.07
7.63 22.01 -12.03
7.71 22.02 -12.04
7.79 22.04 -12.05
7.90 22.14 -12.10
8.03 22.30 -12.19
10.17 16.86 -9.21
8.63 9.93 -5.43
8.61 9.43 -5.15
9.61 10.15 -5.55
10.22 10.65 -5.82
11.21 11.32 -6.19
14.09 13.42 -7.34
14.21 13.45 -7.35
14.23 13.42 -7.34
14.39 13.32 -7.28
13.47 11.04 -6.03
13.66 11.01 -6.02
15.15 11.77 -6.44
15.15 11.53 -6.30
15.17 11.47 -6.27
16.84 11.33 -6.19
16.61 11.07 -6.05
-15.36 11.10 -6.03
-15.16 10.98 -5.97
-10.42 8.12 -4.41
-10.26 8.04 -4.37
-9.79 7.81 -4.24
-9.32 7.64 -4.15
-9.05 7.56 -4.11
-8.63 7.36 -4.00
-8.18 7.20 -3.91
-8.14 7.19 -3.90
-8.04 7.16 -3.89
-7.99 7.15 -3.89
-7.48 7.26 -3.95
-8.67 8.72 -4.74
-8.76 8.91 -4.84
-8.80 8.98 -4.88
-9.03 9.41 -5.11
-10.13 10.93 -5.94
-8.67 9.97 -5.42
-8.27 9.74 -5.29
-4.94 7.67 -4.17
-4.95 7.73 -4.20
-4.20 7.93 -4.31
-3.29 6.67 -3.62
-3.07 6.30 -3.42
-2.96 6.22 -3.38
-2.75 6.12 -3.33
-2.70 6.13 -3.33
-2.67 6.16 -3.35
-2.66 6.29 -3.42
-2.83 7.25 -3.94
-2.92 7.54 -4.10
-8.07 26.90 -14.62
-8.29 27.95 -15.19
-8.51 29.00 -15.76
-8.56 29.50 -16.03
-8.75 30.51 -16.58
-3.77 17.96 -9.76
-3.28 16.66 -9.05
-2.52 15.76 -8.56
-2.26 16.11 -8.75
-2.19 19.30 -10.49
-2.17 20.38 -11.07
-2.07 20.70 -11.25
-1.48 19.29 -10.48
-1.32 18.88 -10.26
-0.63 15.82 -8.60
-0.39 14.70 -7.99
0.40 13.49 -7.33
0.84 12.64 -6.87
1.43 14.27 -7.75
1.95 16.69 -9.07
2.08 17.31 -9.40
2.58 18.84 -10.24
3.65 21.04 -11.43
4.51 20.84 -11.32
6.68 22.01 -11.96
7.25 21.96 -11.93
7.36 22.07 -11.99
10.27 17.03 -9.25
8.66 9.95 -5.41
8.60 9.41 -5.11
9.57 10.11 -5.50
10.23 10.65 -5.79
11.21 11.32 -6.15
14.50 13.67 -7.43
14.67 13.59 -7.38
13.34 10.94 -5.94
13.53 10.91 -5.93
13.62 10.96 -5.95
15.38 11.96 -6.50
15.37 11.70 -6.36
15.38 11.62 -6.31
16.81 11.31 -6.14
16.56 11.04 -6.00
-14.97 10.85 -5.86
-14.78 10.74 -5.80
-10.46 8.15 -4.40
-10.30 8.07 -4.36
-9.80 7.82 -4.22
-9.22 7.56 -4.08
-9.05 7.56 -4.08
-8.99 7.53 -4.07
-8.70 7.41 -4.00
-8.66 7.41 -4.00
-8.29 7.27 -3.93
-8.21 7.24 -3.91
-8.18 7.24 -3.91
-8.11 7.22 -3.90
-8.01 7.20 -3.89
-7.49 7.30 -3.94
-8.67 8.73 -4.71
-9.03 9.41 -5.08
-10.11 10.91 -5.89
-10.16 11.01 -5.94
-8.65 9.94 -5.37
-8.26 9.72 -5.25
-4.92 7.68 -4.15
-4.16 7.86 -4.24
-3.26 6.60 -3.56
-3.02 6.21 -3.35
-2.92 6.12 -3.30
-2.70 6.01 -3.24
-2.65 6.02 -3.25
-2.62 6.05 -3.27
-2.61 6.16 -3.33
-2.90 7.50 -4.05
-3.67 17.76 -9.59
-3.32 16.90 -9.13
-2.55 15.92 -8.60
-2.24 19.77 -10.68
-2.23 20.94 -11.31
-2.13 21.26 -11.48
-1.97 21.06 -11.37
-1.51 19.68 -10.63
-1.35 19.26 -10.40
-0.64 15.95 -8.61
-0.39 14.66 -7.92
0.40 13.43 -7.25
0.85 12.77 -6.90
1.46 14.57 -7.87
1.98 16.97 -9.16
2.58 18.91 -10.21
3.58 20.68 -11.17
4.40 20.30 -10.96
6.72 22.14 -11.96
6.83 22.04 -11.90
7.28 22.06 -11.91
10.39 17.22 -9.30
8.63 9.92 -5.36
8.57 9.38 -5.06
9.52 10.06 -5.43
10.22 10.65 -5.75
11.23 11.34 -6.13
14.46 13.77 -7.44
14.75 13.92 -7.52
15.01 13.90 -7.51
13.30 10.90 -5.89
13.57 10.92 -5.90
15.62 11.90 -6.42
15.60 11.79 -6.37
16.55 11.03 -5.96
-14.38 10.44 -5.61
-14.21 10.35 -5.55
-10.52 8.20 -4.40
-10.36 8.11 -4.35
-10.13 7.98 -4.28
-9.82 7.84 -4.21
-9.13 7.48 -4.02
-8.98 7.53 -4.04
-8.72 7.45 -4.00
-8.36 7.33 -3.94
-8.29 7.31 -3.93
-8.16 7.28 -3.91
-8.09 7.27 -3.90
-8.02 7.24 -3.89
-7.37 7.18 -3.85
-8.69 8.75 -4.69
-8.96 9.31 -4.99
-10.12 10.96 -5.88
-8.71 9.93 -5.33
-8.65 9.90 -5.31
-8.62 9.91 -5.32
-8.24 9.69 -5.20
-8.13 9.64 -5.17
-4.87 7.60 -4.08
-4.11 7.76 -4.17
-3.20 6.48 -3.48
-2.98 6.13 -3.29
-2.88 6.04 -3.24
-2.67 5.93 -3.18
-2.63 5.93 -3.18
-2.57 6.07 -3.26
-2.88 7.44 -3.99
-3.35 17.05 -9.15
-2.59 16.16 -8.67
-2.29 20.19 -10.83
-2.28 21.35 -11.46
-2.17 21.67 -11.63
-2.00 21.40 -11.49
-1.63 20.33 -10.91
-1.36 19.44 -10.43
-0.64 16.00 -8.58
-0.39 14.69 -7.88
0.40 13.35 -7.16
0.81 12.82 -6.88
1.98 17.00 -9.12
2.57 18.79 -10.08
4.34 20.34 -10.92
6.74 22.23 -11.93
6.86 22.11 -11.87
7.30 22.13 -11.88
7.64 22.47 -12.06
10.50 17.41 -9.34
8.55 9.83 -5.28
8.53 9.33 -5.01
9.48 10.01 -5.37
10.20 10.63 -5.70
11.21 11.32 -6.08
14.65 13.95 -7.49
15.06 14.17 -7.60
15.33 14.20 -7.62
15.08 13.23 -7.10
13.31 10.91 -5.85
13.60 10.93 -5.87
15.57 12.07 -6.48
15.78 12.02 -6.45
15.75 11.90 -6.39
16.57 11.05 -5.93
-13.92 10.14 -5.41
-13.04 9.66 -5.15
-10.61 8.26 -4.41
-10.43 8.17 -4.36
-10.10 7.97 -4.25
-9.84 7.85 -4.19
-9.09 7.45 -3.97
-9.02 7.56 -4.03
-8.77 7.50 -4.00
-8.39 7.38 -3.94
-8.36 7.37 -3.93
-8.22 7.34 -3.92
-8.16 7.33 -3.91
-8.08 7.30 -3.89
-7.30 7.11 -3.79
-7.42 7.25 -3.87
-8.74 8.83 -4.71
-8.97 9.31 -4.96
-9.22 9.71 -5.18
-9.87 10.62 -5.66
-10.06 10.90 -5.81
-8.60 9.88 -5.27
-8.22 9.68 -5.16
-8.13 9.64 -5.14
-8.10 9.68 -5.16
-4.82 7.53 -4.02
-4.00 7.59 -4.05
-3.16 6.41 -3.42
-2.92 6.04 -3.22
-2.86 6.01 -3.20
-2.65 5.88 -3.14
-2.61 5.88 -3.14
-2.55 6.01 -3.21
-2.86 7.38 -3.94
-5.91 18.09 -9.65
-3.35 17.03 -9.08
-2.63 16.44 -8.77
-2.33 20.54 -10.95
-2.31 21.63 -11.53
-2.20 21.96 -11.71
-1.65 20.62 -11.00
-1.37 19.64 -10.48
-0.65 16.13 -8.60
-0.39 14.71 -7.85
0.40 13.30 -7.10
0.81 12.81 -6.83
2.07 17.24 -9.19
2.55 18.63 -9.94
4.32 20.26 -10.81
6.73 22.44 -11.97
6.76 22.28 -11.88
6.87 22.16 -11.82
7.32 22.19 -11.83
7.44 22.33 -11.91
7.67 22.55 -12.02
8.82 21.68 -11.56
10.68 17.79 -9.49
8.46 9.76 -5.21
8.50 9.30 -4.96
9.44 9.97 -5.32
10.20 10.62 -5.67
11.17 11.29 -6.02
14.76 14.06 -7.50
15.23 14.32 -7.64
15.51 14.36 -7.66
15.66 14.45 -7.71
15.07 13.22 -7.05
13.45 11.03 -5.88
13.75 11.06 -5.90
15.68 12.16 -6.48
15.85 12.07 -6.43
15.81 11.95 -6.37
16.58 11.05 -5.90
-14.32 10.23 -5.42
-14.24 10.19 -5.40
-13.84 10.08 -5.34
-13.14 9.73 -5.16
-10.58 8.27 -4.38
-10.43 8.19 -4.34
-10.15 8.03 -4.26
-9.90 7.90 -4.18
-9.10 7.44 -3.94
-9.04 7.58 -4.02
-8.82 7.54 -4.00
-8.26 7.37 -3.91
-8.19 7.36 -3.90
-8.11 7.32 -3.88
-7.38 7.21 -3.82
-8.74 8.83 -4.68
-8.77 8.89 -4.71
-8.96 9.30 -4.93
-9.21 9.69 -5.14
-9.84 10.58 -5.61
-9.94 10.73 -5.69
-10.00 10.83 -5.74
-8.63 9.89 -5.24
-8.17 9.65 -5.12
-8.12 9.67 -5.13
-4.77 7.49 -3.97
-3.95 7.51 -3.98
-3.04 6.20 -3.28
-2.92 6.04 -3.20
-2.84 5.99 -3.18
-2.76 5.95 -3.15
-2.64 5.86 -3.11
-2.60 5.86 -3.11
-2.53 5.99 -3.17
-2.86 7.39 -3.91
-5.70 17.46 -9.25
-7.41 24.98 -13.24
-3.34 16.96 -8.99
-2.66 16.62 -8.81
-2.37 20.92 -11.09
-2.34 21.94 -11.63
-1.70 21.23 -11.25
-1.41 20.20 -10.70
-1.33 19.99 -10.60
-1.25 19.72 -10.45
-0.66 16.49 -8.74
-0.40 14.94 -7.92
0.32 13.58 -7.20
0.40 13.32 -7.06
0.85 12.81 -6.79
2.03 16.93 -8.97
2.51 18.39 -9.74
4.28 20.06 -10.63
6.76 22.53 -11.94
6.89 22.22 -11.78
7.47 22.41 -11.88
7.69 22.63 -11.99
7.80 22.50 -11.93
7.95 22.51 -11.93
9.06 22.27 -11.80
9.15 22.31 -11.83
10.81 18.01 -9.55
8.34 9.63 -5.10
8.48 9.29 -4.92
9.38 9.91 -5.25
14.78 14.08 -7.46
15.26 14.36 -7.61
15.03 13.19 -6.99
13.73 11.26 -5.97
13.90 11.21 -5.94
15.75 12.18 -6.46
15.74 12.14 -6.43
15.78 12.11 -6.42
15.92 12.13 -6.43
15.88 12.00 -6.36
16.58 11.05 -5.86
-14.28 10.20 -5.37
-14.20 10.17 -5.35
-13.74 10.03 -5.28
-13.22 9.80 -5.16
-13.08 9.72 -5.12
-10.70 8.36 -4.40
-10.53 8.27 -4.36
-10.38 8.18 -4.31
-9.98 7.96 -4.19
-9.15 7.48 -3.94
-9.06 7.59 -4.00
-8.81 7.55 -3.98
-8.52 7.47 -3.93
-8.48 7.46 -3.93
-8.29 7.40 -3.90
-8.23 7.39 -3.89
-8.13 7.35 -3.87
-7.23 7.04 -3.71
-8.78 8.90 -4.69
-8.98 9.32 -4.91
-9.00 9.38 -4.94
-9.23 9.72 -5.12
-9.95 10.78 -5.68
-8.67 9.93 -5.23
-8.21 9.70 -5.11
-4.74 7.36 -3.88
-4.73 7.38 -3.89
-4.72 7.42 -3.91
-3.92 7.44 -3.92
-3.00 6.13 -3.23
-2.82 5.96 -3.14
-2.74 5.92 -3.12
-2.63 5.84 -3.08
-2.53 5.97 -3.15
-2.86 7.40 -3.90
-5.52 16.90 -8.90
-7.19 24.23 -12.76
-3.36 17.08 -8.99
-2.68 16.78 -8.84
-2.56 16.33 -8.60
-2.42 21.35 -11.25
-2.38 22.34 -11.76
-1.76 21.95 -11.56
-1.47 20.96 -11.04
-1.21 20.14 -10.61
-0.68 17.10 -9.00
-0.41 15.52 -8.17
0.32 13.70 -7.21
0.40 13.38 -7.05
0.85 12.76 -6.72
2.06 16.71 -8.80
2.47 18.06 -9.51
4.26 19.65 -10.35
6.78 22.60 -11.90
6.93 22.35 -11.77
7.54 22.62 -11.91
7.67 22.80 -12.01
8.03 22.72 -11.97
9.34 22.79 -12.00
9.95 18.31 -9.64
10.45 18.44 -9.71
11.01 18.25 -9.61
8.18 9.44 -4.97
8.49 9.30 -4.90
9.34 9.86 -5.19
14.69 13.99 -7.37
15.19 14.28 -7.52
14.97 13.13 -6.91
14.96 13.08 -6.89
13.99 11.47 -6.04
15.87 12.24 -6.44
15.89 12.19 -6.42
16.03 12.21 -6.43
15.94 12.05 -6.34
16.56 11.04 -5.81
-14.09 10.09 -5.28
-14.02 10.06 -5.27
-13.96 10.04 -5.26
-13.92 10.04 -5.25
-13.89 10.04 -5.25
-13.85 10.03 -5.25
-13.66 9.97 -5.22
-13.13 9.75 -5.10
-10.78 8.42 -4.41
-10.02 7.99 -4.18
-9.16 7.49 -3.92
-9.02 7.58 -3.97
-8.85 7.59 -3.97
-8.55 7.50 -3.93
-8.51 7.49 -3.92
-8.47 7.47 -3.91
-8.32 7.43 -3.89
-8.26 7.42 -3.88
-8.15 7.37 -3.86
-8.77 8.86 -4.64
-9.27 9.76 -5.11
-9.95 10.78 -5.64
-8.87 10.12 -5.30
-8.28 9.78 -5.12
-4.70 7.38 -3.86
-3.90 7.41 -3.88
-2.98 6.09 -3.19
-2.81 5.94 -3.11
-2.73 5.90 -3.09
-2.63 5.84 -3.05
-2.53 5.97 -3.12
-3.02 7.88 -4.12
-5.44 16.66 -8.72
-7.04 23.71 -12.41
-7.27 25.08 -13.13
-4.09 19.19 -10.04
-3.43 17.44 -9.13
-2.72 17.01 -8.90
-2.45 21.65 -11.33
-2.40 22.51 -11.78
-1.79 22.33 -11.69
-1.51 21.51 -11.26
-0.72 17.91 -9.37
-0.44 16.46 -8.62
0.32 13.89 -7.27
0.41 13.52 -7.07
0.85 12.71 -6.65
2.11 16.63 -8.70
2.43 17.76 -9.29
4.14 19.41 -10.16
6.90 23.01 -12.04
7.13 22.99 -12.03
8.06 23.72 -12.41
8.12 23.66 -12.38
8.26 23.60 -12.35
9.51 23.21 -12.14
9.98 18.47 -9.67
10.09 18.56 -9.71
10.15 18.57 -9.72
10.23 18.60 -9.74
10.36 18.72 -9.80
10.46 18.79 -9.83
10.54 18.82 -9.85
10.59 18.80 -9.84
11.35 18.81 -9.84
8.10 9.34 -4.89
8.42 9.26 -4.84
9.32 9.84 -5.15
10.14 10.56 -5.53
14.52 13.83 -7.24
14.91 14.07 -7.36
15.06 14.16 -7.41
14.86 12.99 -6.80
14.85 12.95 -6.78
14.07 11.53 -6.04
14.33 11.55 -6.05
16.05 12.37 -6.48
16.05 12.32 -6.45
16.18 12.32 -6.45
16.03 12.12 -6.34
16.64 11.12 -5.82
-14.96 10.53 -5.48
-14.60 10.31 -5.36
-13.79 9.97 -5.18
-13.64 9.93 -5.17
-13.58 9.91 -5.16
-13.06 9.70 -5.04
-12.08 9.17 -4.77
-11.85 9.05 -4.70
-10.78 8.42 -4.38
-10.04 8.01 -4.16
-9.16 7.48 -3.89
-9.01 7.57 -3.94
-8.62 7.54 -3.92
-8.49 7.49 -3.89
-8.24 7.42 -3.86
-8.10 7.34 -3.82
-8.76 8.82 -4.59
-9.30 9.79 -5.09
-9.35 9.88 -5.14
-9.98 10.81 -5.62
-10.06 10.94 -5.69
-8.77 10.09 -5.24
-8.35 9.86 -5.13
-5.63 7.68 -3.99
-3.90 7.40 -3.85
-2.97 6.07 -3.16
-2.81 5.93 -3.08
-2.71 5.88 -3.06
-2.63 5.84 -3.03
-2.53 5.97 -3.10
-2.87 7.41 -3.85
-5.36 16.41 -8.53
-6.90 23.26 -12.09
-7.16 24.70 -12.84
-4.20 19.69 -10.24
-3.54 18.00 -9.36
-2.77 17.33 -9.01
-2.48 21.91 -11.39
-2.41 22.57 -11.74
-1.73 22.54 -11.72
-1.54 22.07 -11.48
-1.30 21.60 -11.23
-0.76 18.93 -9.84
-0.47 17.69 -9.20
0.33 14.12 -7.34
0.41 13.69 -7.12
0.84 12.59 -6.55
2.09 16.50 -8.58
2.40 17.55 -9.13
4.11 19.29 -10.03
7.18 23.94 -12.45
7.37 23.78 -12.36
8.45 24.62 -12.80
8.52 24.57 -12.78
8.60 24.57 -12.78
9.68 23.41 -12.17
10.40 19.26 -10.02
10.80 19.52 -10.15
10.99 19.63 -10.21
11.81 19.68 -10.23
8.12 9.37 -4.87
8.46 9.30 -4.84
9.32 9.85 -5.12
10.11 10.53 -5.48
14.57 13.84 -7.19
14.69 13.91 -7.23
15.01 14.11 -7.34
15.21 14.26 -7.42
14.70 12.82 -6.66
14.72 12.80 -6.66
13.95 11.44 -5.95
14.23 11.48 -5.97
14.38 11.57 -6.02
16.26 12.54 -6.52
16.25 12.47 -6.48
16.35 12.45 -6.47
16.17 12.22 -6.35
16.54 11.05 -5.75
-14.48 10.22 -5.28
-13.69 9.90 -5.11
-13.50 9.85 -5.09
-13.23 9.75 -5.04
-13.15 9.72 -5.02
-13.06 9.67 -5.00
-12.94 9.61 -4.97
-12.83 9.55 -4.94
-12.50 9.40 -4.86
-12.41 9.36 -4.83
-12.28 9.28 -4.80
-12.15 9.20 -4.75
-12.03 9.14 -4.72
-11.92 9.08 -4.69
-11.73 8.98 -4.64
-9.92 7.93 -4.10
-9.21 7.53 -3.89
-9.04 7.59 -3.92
-8.99 7.57 -3.91
-8.89 7.62 -3.94
-8.61 7.55 -3.90
-8.51 7.51 -3.88
-8.25 7.43 -3.84
-8.11 7.35 -3.80
-8.80 8.89 -4.59
-9.34 9.87 -5.10
-10.05 10.93 -5.65
-8.85 10.17 -5.25
-8.41 9.94 -5.13
-5.64 7.66 -3.96
-3.87 7.34 -3.79
-2.96 6.05 -3.12
-2.80 5.92 -3.06
-2.71 5.88 -3.04
-2.67 5.86 -3.03
-2.62 5.83 -3.01
-2.52 5.96 -3.08
-2.87 7.42 -3.84
-5.25 16.07 -8.30
-6.82 23.00 -11.89
-6.98 23.81 -12.30
-7.13 24.58 -12.70
-4.37 20.47 -10.57
-3.67 18.67 -9.65
-2.82 17.63 -9.11
-2.53 22.30 -11.52
-1.85 23.15 -11.96
-1.59 22.66 -11.71
-1.35 22.43 -11.59
-0.80 19.95 -10.31
-0.50 18.66 -9.64
0.33 14.23 -7.35
0.41 13.76 -7.11
0.79 12.46 -6.44
2.08 16.38 -8.46
2.37 17.33 -8.96
4.09 18.90 -9.76
7.35 24.52 -12.67
7.34 23.67 -12.23
8.45 24.61 -12.72
9.80 23.72 -12.25
10.63 19.69 -10.17
11.01 19.90 -10.28
11.20 20.00 -10.33
11.26 19.98 -10.32
11.30 19.95 -10.31
11.46 20.11 -10.39
11.62 20.27 -10.47
11.96 19.82 -10.24
8.23 9.49 -4.90
8.51 9.35 -4.83
9.17 9.72 -5.02
10.13 10.55 -5.45
14.55 13.81 -7.14
15.79 14.44 -7.46
15.70 14.27 -7.38
14.97 13.28 -6.86
14.51 12.62 -6.52
13.74 11.26 -5.82
14.16 11.39 -5.88
16.39 12.64 -6.53
16.37 12.56 -6.49
16.45 12.52 -6.47
16.24 12.27 -6.34
16.51 11.03 -5.70
-14.38 10.15 -5.21
-13.60 9.83 -5.05
-13.55 9.82 -5.04
-13.42 9.80 -5.03
-13.13 9.68 -4.97
-12.77 9.51 -4.88
-12.47 9.37 -4.81
-10.80 8.46 -4.34
-10.01 8.01 -4.11
-9.31 7.61 -3.91
-9.07 7.64 -3.92
-8.91 7.64 -3.92
-8.64 7.58 -3.89
-8.54 7.54 -3.87
-8.37 7.47 -3.84
-8.27 7.45 -3.83
-8.12 7.36 -3.78
-8.80 8.89 -4.56
-9.28 9.81 -5.03
-9.93 10.79 -5.54
-8.90 10.23 -5.25
-8.47 10.00 -5.13
-5.62 7.62 -3.91
-3.84 7.29 -3.74
-2.95 6.02 -3.09
-2.79 5.90 -3.03
-2.61 5.81 -2.98
-2.56 5.82 -2.99
-2.52 5.95 -3.05
-2.89 7.47 -3.84
-5.17 15.81 -8.12
-6.73 22.68 -11.64
-7.09 24.46 -12.55
-4.52 21.17 -10.87
-3.79 19.29 -9.90
-2.85 17.82 -9.15
-2.58 22.80 -11.70
-1.80 23.52 -12.07
-1.62 23.12 -11.87
-1.38 22.99 -11.80
-0.82 20.56 -10.55
-0.51 19.08 -9.79
0.41 13.66 -7.01
0.78 12.28 -6.30
1.06 12.66 -6.50
2.06 16.24 -8.34
2.35 17.17 -8.81
4.00 18.46 -9.48
7.97 26.57 -13.64
7.91 25.52 -13.10
9.46 27.54 -14.14
9.87 24.07 -12.36
10.71 19.84 -10.18
10.96 19.93 -10.23
11.07 20.00 -10.27
11.30 20.05 -10.29
11.66 20.34 -10.44
12.12 20.21 -10.37
8.33 9.61 -4.93
8.53 9.37 -4.81
9.33 9.86 -5.06
10.14 10.56 -5.42
14.55 13.81 -7.09
15.71 14.37 -7.38
15.63 14.25 -7.32
15.55 14.06 -7.22
14.78 13.12 -6.73
14.29 12.43 -6.38
13.59 11.14 -5.72
13.97 11.23 -5.77
16.44 12.68 -6.51
16.42 12.60 -6.47
16.49 12.59 -6.46
16.51 12.57 -6.45
16.30 12.32 -6.32
16.54 11.05 -5.67
-14.56 10.26 -5.23
-13.57 9.79 -4.99
-13.49 9.77 -4.98
-13.44 9.76 -4.98
-13.41 9.76 -4.98
-13.37 9.76 -4.98
-13.13 9.66 -4.92
-13.05 9.62 -4.91
-12.77 9.51 -4.85
-12.47 9.38 -4.78
-12.27 9.28 -4.73
-10.76 8.45 -4.31
-10.52 8.33 -4.25
-10.48 8.32 -4.24
-10.07 8.05 -4.11
-9.31 7.63 -3.89
-9.17 7.72 -3.94
-8.95 7.67 -3.91
-8.63 7.59 -3.87
-8.53 7.55 -3.85
-8.40 7.50 -3.82
-8.37 7.50 -3.82
-8.35 7.50 -3.82
-8.30 7.48 -3.81
-8.15 7.38 -3.77
-8.81 8.90 -4.54
-9.08 9.53 -4.86
-9.19 9.71 -4.95
-9.80 10.65 -5.43
-8.92 10.25 -5.23
-5.60 7.60 -3.88
-3.79 7.20 -3.67
-2.94 6.00 -3.06
-2.80 5.88 -3.00
-2.78 5.88 -3.00
-2.71 5.85 -2.98
-2.61 5.79 -2.96
-2.55 5.80 -2.96
-2.54 5.81 -2.96
-2.50 5.95 -3.03
-2.88 7.46 -3.80
-5.04 15.44 -7.87
-6.44 21.71 -11.07
-6.88 23.71 -12.09
-4.82 22.26 -11.35
-3.85 19.59 -9.99
-2.86 17.86 -9.11
-2.61 23.77 -12.12
-1.84 23.97 -12.22
-1.65 23.52 -11.99
-1.48 23.38 -11.92
-0.85 21.13 -10.77
-0.53 19.71 -10.05
0.41 13.57 -6.92
0.77 12.10 -6.17
1.05 12.55 -6.40
2.04 16.11 -8.22
2.33 17.04 -8.69
3.91 18.07 -9.21
8.79 29.31 -14.95
9.01 29.05 -14.82
11.32 32.98 -16.82
11.43 32.97 -16.81
11.54 32.96 -16.81
10.03 24.46 -12.48
10.75 19.91 -10.15
11.07 20.00 -10.20
11.29 20.04 -10.22
11.50 20.18 -10.29
12.11 20.19 -10.30
8.38 9.67 -4.93
8.51 9.35 -4.77
9.32 9.84 -5.02
10.14 10.56 -5.39
14.40 13.72 -6.99
14.74 13.95 -7.11
14.92 14.08 -7.18
15.54 14.17 -7.23
15.47 14.07 -7.17
15.40 13.92 -7.10
14.91 13.31 -6.79
14.62 12.93 -6.60
14.18 12.33 -6.29
13.52 11.09 -5.65
13.91 11.19 -5.71
16.51 12.74 -6.50
16.52 12.67 -6.46
16.60 12.67 -6.46
16.42 12.41 -6.33
16.66 11.13 -5.68
-14.18 10.01 -5.07
-13.51 9.74 -4.94
-13.47 9.74 -4.93
-13.39 9.72 -4.93
-12.93 9.56 -4.84
-12.78 9.51 -4.82
-12.73 9.50 -4.81
-12.49 9.39 -4.76
-12.42 9.36 -4.74
-12.21 9.25 -4.69
-10.71 8.43 -4.27
-10.55 8.37 -4.24
-10.46 8.32 -4.22
-10.10 8.08 -4.09
-9.36 7.67 -3.89
-9.26 7.80 -3.95
-9.21 7.78 -3.94
-9.17 7.77 -3.94
-9.11 7.75 -3.92
-9.08 7.74 -3.92
-9.00 7.72 -3.91
-8.93 7.70 -3.90
-8.66 7.62 -3.86
-8.57 7.58 -3.84
-8.52 7.56 -3.83
-8.47 7.54 -3.82
-8.40 7.52 -3.81
-8.32 7.50 -3.80
-8.08 7.35 -3.72
-8.82 8.91 -4.52
-8.91 9.25 -4.69
-8.94 9.32 -4.72
-9.03 9.47 -4.80
-9.12 9.63 -4.88
-9.73 10.58 -5.36
-9.78 10.67 -5.40
-9.00 10.31 -5.22
-8.91 10.24 -5.19
-5.59 7.58 -3.84
-3.74 7.10 -3.60
-2.94 6.00 -3.04
-2.89 5.95 -3.01
-2.77 5.85 -2.96
-2.70 5.83 -2.96
-2.58 5.79 -2.93
-2.53 5.80 -2.94
-2.49 5.92 -3.00
-3.07 8.00 -4.05
-6.33 21.33 -10.81
-6.79 23.41 -11.86
-4.79 22.11 -11.20
-3.97 19.85 -10.06
-2.85 17.80 -9.02
-2.66 23.49 -11.90
-1.86 24.27 -12.30
-1.66 23.78 -12.05
-1.50 23.73 -12.02
-0.87 21.76 -11.02
-0.55 20.64 -10.46
0.41 13.74 -6.96
0.46 12.62 -6.39
0.76 11.93 -6.05
1.04 12.49 -6.33
2.03 16.01 -8.11
2.30 16.83 -8.53
3.79 17.48 -8.86
8.43 28.09 -14.23
8.66 27.92 -14.15
11.09 31.40 -15.91
11.17 31.32 -15.87
10.11 24.66 -12.49
10.77 19.95 -10.11
11.06 19.98 -10.13
11.27 20.01 -10.14
12.13 20.21 -10.24
8.35 9.64 -4.88
8.48 9.32 -4.72
9.29 9.81 -4.97
9.96 10.41 -5.27
10.13 10.56 -5.35
14.49 13.80 -6.99
15.37 13.97 -7.08
15.24 13.73 -6.96
15.00 13.48 -6.83
14.84 13.29 -6.73
14.64 13.04 -6.61
14.47 12.85 -6.51
14.50 12.83 -6.50
14.10 12.26 -6.21
13.43 11.01 -5.58
13.88 11.16 -5.66
16.62 12.82 -6.49
16.66 12.78 -6.47
16.76 12.79 -6.48
16.59 12.54 -6.35
16.72 11.17 -5.66
-14.07 9.93 -5.00
-13.89 9.83 -4.95
-13.73 9.74 -4.90
-13.68 9.72 -4.89
-13.70 9.76 -4.91
-13.44 9.69 -4.88
-13.32 9.68 -4.87
-13.29 9.68 -4.87
-13.01 9.56 -4.81
-12.92 9.54 -4.80
-12.82 9.52 -4.79
-12.73 9.50 -4.78
-12.44 9.38 -4.72
-12.29 9.31 -4.69
-10.81 8.51 -4.28
-10.54 8.39 -4.22
-10.17 8.13 -4.09
-9.42 7.72 -3.89
-9.29 7.85 -3.95
-9.12 7.77 -3.91
-9.06 7.76 -3.91
-8.97 7.73 -3.89
-8.93 7.72 -3.88
-8.69 7.65 -3.85
-8.60 7.61 -3.83
-8.42 7.54 -3.79
-8.26 7.46 -3.76
-8.09 7.36 -3.70
-8.83 8.92 -4.49
-8.85 8.97 -4.51
-8.85 9.19 -4.63
-8.92 9.32 -4.69
-8.97 9.41 -4.74
-9.66 10.46 -5.27
-9.72 10.61 -5.34
-8.97 10.27 -5.17
-5.56 7.54 -3.80
-5.53 7.54 -3.79
-3.71 7.04 -3.54
-2.94 5.99 -3.02
-2.89 5.94 -2.99
-2.74 5.83 -2.93
-2.69 5.81 -2.93
-2.58 5.78 -2.91
-2.53 5.79 -2.92
-2.48 5.81 -2.93
-2.48 5.90 -2.97
-3.08 8.03 -4.04
-6.13 20.66 -10.40
-6.64 22.90 -11.53
-4.50 21.09 -10.62
-3.93 19.66 -9.90
-2.83 17.68 -8.90
-2.67 23.52 -11.84
-1.88 24.56 -12.36
-1.68 24.06 -12.11
-1.53 24.08 -12.12
-0.89 22.26 -11.20
-0.57 21.38 -10.76
0.42 13.96 -7.03
0.46 12.67 -6.38
0.74 11.71 -5.89
1.03 12.30 -6.19
2.01 15.85 -7.98
2.19 16.40 -8.25
3.69 17.04 -8.58
7.98 26.60 -13.39
8.29 26.74 -13.46
10.87 30.49 -15.35
10.89 30.26 -15.23
10.16 24.77 -12.47
10.80 19.99 -10.06
11.08 20.02 -10.08
11.22 20.03 -10.08
11.28 20.03 -10.08
12.16 20.27 -10.20
8.29 9.57 -4.81
8.46 9.30 -4.68
9.23 9.75 -4.91
9.88 10.33 -5.20
14.61 13.92 -7.01
15.22 13.79 -6.94
14.75 13.21 -6.65
14.07 12.23 -6.16
13.24 10.86 -5.46
13.78 11.09 -5.58
16.71 12.89 -6.49
16.87 12.88 -6.48
16.74 12.65 -6.37
16.71 11.17 -5.62
-14.03 9.91 -4.95
-13.67 9.74 -4.87
-13.39 9.66 -4.83
-13.25 9.65 -4.82
-13.21 9.64 -4.82
-12.93 9.53 -4.77
-12.90 9.53 -4.77
-12.81 9.51 -4.75
-12.72 9.49 -4.74
-12.47 9.40 -4.70
-12.36 9.36 -4.68
-10.92 8.60 -4.30
-10.86 8.58 -4.29
-10.64 8.47 -4.23
-10.26 8.21 -4.10
-9.49 7.78 -3.89
-9.11 7.81 -3.90
-8.97 7.75 -3.88
-8.93 7.74 -3.87
-8.68 7.66 -3.83
-8.63 7.64 -3.82
-8.58 7.62 -3.81
-8.44 7.55 -3.78
-8.27 7.47 -3.73
-8.10 7.36 -3.68
-8.83 8.95 -4.47
-8.85 9.06 -4.53
-9.53 10.32 -5.16
-9.60 10.47 -5.24
-8.95 10.24 -5.12
-5.49 7.49 -3.74
-3.68 6.99 -3.49
-2.89 5.93 -2.96
-2.75 5.81 -2.91
-2.69 5.80 -2.90
-2.58 5.78 -2.89
-2.53 5.79 -2.89
-2.49 5.80 -2.90
-2.48 5.81 -2.91
-2.48 5.90 -2.95
-3.07 8.01 -4.00
-5.04 15.91 -7.95
-5.92 19.95 -9.98
-6.47 22.32 -11.16
-4.42 20.71 -10.36
-3.87 19.37 -9.69
-2.81 17.59 -8.80
-2.64 23.28 -11.64
-1.91 24.90 -12.45
-1.70 24.32 -12.16
-1.54 24.35 -12.17
-0.90 22.62 -11.31
-0.58 21.72 -10.86
0.42 13.99 -7.00
0.47 12.69 -6.34
1.01 12.10 -6.05
1.98 15.61 -7.80
3.63 16.77 -8.39
7.67 25.56 -12.78
10.70 29.74 -14.87
10.17 24.80 -12.40
10.85 20.09 -10.05
11.28 20.14 -10.07
12.29 20.48 -10.24
8.21 9.48 -4.74
8.57 9.38 -4.69
9.03 9.57 -4.79
9.60 10.03 -5.02
14.47 13.83 -6.91
14.79 14.08 -7.04
15.27 13.84 -6.92
15.27 13.80 -6.90
14.73 13.19 -6.60
14.08 12.24 -6.12
13.00 10.66 -5.33
13.44 10.84 -5.42
14.14 11.31 -5.66
16.77 12.93 -6.47
16.82 12.90 -6.45
16.93 12.92 -6.46
16.81 12.70 -6.35
16.69 11.15 -5.58
-13.91 9.85 -4.89
-13.10 9.59 -4.76
-13.01 9.54 -4.74
-12.88 9.52 -4.73
-12.74 9.48 -4.71
-12.69 9.47 -4.70
-12.48 9.41 -4.67
-12.37 9.40 -4.67
-10.97 8.66 -4.30
-10.71 8.53 -4.23
-10.25 8.23 -4.09
-9.61 7.85 -3.90
-9.42 7.96 -3.95
-9.37 7.94 -3.94
-9.10 7.83 -3.89
-8.96 7.77 -3.86
-8.92 7.76 -3.85
-8.27 7.47 -3.71
-8.10 7.36 -3.66
-8.80 8.91 -4.43
-8.79 9.00 -4.47
-9.42 10.20 -5.07
-9.49 10.35 -5.14
-8.87 10.15 -5.04
-5.45 7.43 -3.69
-3.64 6.90 -3.43
-2.88 5.92 -2.94
-2.77 5.81 -2.89
-2.69 5.81 -2.89
-2.59 5.79 -2.88
-2.53 5.80 -2.88
-2.50 5.81 -2.89
-2.48 5.91 -2.94
-3.05 7.95 -3.95
-4.77 14.76 -7.33
-4.86 15.20 -7.55
-4.95 15.63 -7.76
-5.05 16.11 -8.00
-5.79 19.51 -9.69
-4.36 20.42 -10.14
-3.83 19.14 -9.51
-2.60 22.93 -11.39
-1.94 25.26 -12.55
-1.72 24.56 -12.20
-1.56 24.65 -12.24
-0.92 23.03 -11.44
-0.59 21.99 -10.92
0.42 14.08 -6.99
0.47 12.69 -6.30
1.01 12.08 -6.00
1.89 15.32 -7.61
3.58 16.53 -8.21
7.50 25.00 -12.42
10.69 29.69 -14.75
10.22 24.93 -12.38
10.80 20.13 -10.00
10.97 20.32 -10.09
11.43 20.41 -10.14
11.88 20.72 -10.29
12.45 20.75 -10.30
8.16 9.42 -4.68
8.59 9.41 -4.67
8.92 9.46 -4.70
9.39 9.81 -4.87
14.84 14.14 -7.02
15.31 13.84 -6.87
14.76 13.22 -6.57
14.09 12.26 -6.09
12.80 10.49 -5.21
13.52 10.88 -5.40
13.99 11.19 -5.56
16.90 13.04 -6.48
16.93 12.99 -6.45
17.03 13.00 -6.46
16.90 12.77 -6.34
16.81 11.36 -5.64
16.68 11.14 -5.53
-13.41 9.65 -4.76
-13.34 9.62 -4.75
-13.19 9.60 -4.74
-13.15 9.60 -4.73
-13.07 9.57 -4.72
-12.92 9.50 -4.69
-12.83 9.50 -4.69
-12.45 9.41 -4.64
-12.40 9.42 -4.65
-11.05 8.73 -4.30
-10.79 8.59 -4.24
-10.37 8.32 -4.10
-9.67 7.90 -3.90
-9.42 7.96 -3.93
-9.28 7.91 -3.90
-9.24 7.90 -3.90
-9.14 7.85 -3.88
-9.08 7.83 -3.86
-8.26 7.46 -3.68
-8.08 7.35 -3.62
-8.78 8.89 -4.39
-8.75 8.96 -4.42
-9.31 10.08 -4.97
-9.34 10.19 -5.03
-8.61 9.89 -4.88
-4.45 6.71 -3.31
-3.58 6.79 -3.35
-2.88 5.91 -2.92
-2.77 5.82 -2.87
-2.70 5.82 -2.87
-2.59 5.81 -2.86
-2.54 5.81 -2.87
-2.51 5.83 -2.88
-2.50 5.95 -2.93
-3.04 7.92 -3.91
-4.73 14.62 -7.21
-5.00 15.97 -7.88
-5.71 19.25 -9.50
-4.35 20.39 -10.06
-3.82 19.10 -9.42
-2.54 23.11 -11.40
-1.96 25.62 -12.64
-1.74 24.91 -12.29
-1.59 25.11 -12.39
-0.95 23.75 -11.71
-0.61 22.70 -11.20
0.43 14.34 -7.07
0.47 12.69 -6.26
1.01 12.07 -5.95
1.86 15.08 -7.44
1.91 15.09 -7.45
3.51 16.21 -8.00
7.35 24.51 -12.09
10.84 30.12 -14.86
10.22 24.92 -12.30
11.34 20.86 -10.29
11.82 20.86 -10.29
12.00 21.05 -10.38
12.19 21.26 -10.49
12.59 20.99 -10.35
8.14 9.39 -4.63
8.75 9.58 -4.73
9.14 9.69 -4.78
9.52 9.95 -4.91
14.39 13.75 -6.78
15.34 13.87 -6.84
15.26 13.74 -6.78
14.83 13.28 -6.55
14.42 12.80 -6.31
14.16 12.31 -6.07
12.69 10.40 -5.13
13.69 10.98 -5.42
17.14 13.22 -6.52
17.16 13.16 -6.49
17.24 13.16 -6.49
17.22 13.05 -6.44
16.76 11.30 -5.57
16.63 11.11 -5.48
-13.81 9.77 -4.79
-13.48 9.67 -4.74
-13.32 9.60 -4.71
-13.19 9.58 -4.69
-13.16 9.58 -4.69
-12.87 9.49 -4.65
-12.82 9.50 -4.65
-12.48 9.43 -4.62
-12.46 9.44 -4.63
-12.43 9.44 -4.63
-12.36 9.44 -4.62
-12.31 9.42 -4.62
-11.77 9.15 -4.48
-11.14 8.79 -4.31
-10.87 8.65 -4.24
-10.50 8.42 -4.13
-9.96 8.10 -3.97
-9.87 8.04 -3.94
-9.36 7.93 -3.89
-9.31 7.92 -3.88
-9.24 7.89 -3.87
-9.09 7.84 -3.84
-8.25 7.46 -3.65
-8.08 7.34 -3.60
-8.78 8.90 -4.36
-8.68 8.92 -4.37
-9.22 10.06 -4.93
-9.05 10.21 -5.00
-8.52 9.79 -4.80
-4.35 6.55 -3.21
-4.26 6.49 -3.18
-3.51 6.67 -3.27
-2.86 5.88 -2.88
-2.77 5.81 -2.85
-2.70 5.82 -2.85
-2.62 5.83 -2.86
-2.55 5.83 -2.86
-2.52 5.86 -2.87
-2.51 5.99 -2.93
-3.04 7.92 -3.88
-4.55 13.92 -6.82
-4.94 15.78 -7.73
-5.65 19.05 -9.33
-7.01 25.02 -12.26
-7.10 25.66 -12.58
-4.38 20.53 -10.06
-3.73 18.95 -9.29
-2.52 22.92 -11.23
-2.09 26.07 -12.77
-1.78 25.37 -12.43
-1.62 25.62 -12.56
-0.98 24.59 -12.05
-0.63 23.49 -11.51
0.44 14.56 -7.14
0.47 12.83 -6.29
1.20 12.84 -6.29
3.43 15.85 -7.77
7.26 24.19 -11.85
10.68 29.67 -14.54
10.15 24.97 -12.24
11.49 21.15 -10.36
11.57 21.16 -10.37
11.61 21.12 -10.35
11.70 21.15 -10.36
11.79 21.18 -10.38
11.89 21.23 -10.40
11.95 21.21 -10.39
12.01 21.19 -10.38
12.74 21.23 -10.40
8.12 9.37 -4.59
8.83 9.66 -4.73
9.22 9.78 -4.79
9.51 9.94 -4.87
14.20 13.57 -6.65
15.24 13.73 -6.73
14.45 12.82 -6.28
14.22 12.37 -6.06
12.69 10.40 -5.10
13.44 10.81 -5.30
17.45 13.46 -6.59
17.46 13.40 -6.56
17.54 13.39 -6.56
17.49 13.25 -6.49
16.70 11.26 -5.52
16.62 11.10 -5.44
-13.79 9.76 -4.75
-13.50 9.69 -4.72
-13.24 9.59 -4.67
-13.19 9.58 -4.66
-12.81 9.49 -4.62
-11.86 9.22 -4.49
-11.26 8.89 -4.33
-10.87 8.67 -4.22
-10.63 8.53 -4.15
-9.98 8.14 -3.96
-9.87 8.07 -3.93
-9.21 7.88 -3.83
-9.09 7.84 -3.81
-8.68 7.68 -3.74
-8.62 7.66 -3.73
-8.26 7.46 -3.63
-8.09 7.35 -3.58
-8.76 8.88 -4.32
-8.64 8.88 -4.32
-9.15 9.99 -4.86
-8.96 10.11 -4.92
-8.48 9.74 -4.74
-4.26 6.43 -3.13
-4.18 6.37 -3.10
-3.45 6.55 -3.19
-2.84 5.85 -2.84
-2.77 5.81 -2.83
-2.70 5.83 -2.84
-2.63 5.85 -2.84
-2.55 5.85 -2.85
-2.53 5.88 -2.86
-2.52 5.90 -2.87
-2.53 6.02 -2.93
-3.04 7.93 -3.86
-4.64 14.35 -6.98
-4.92 15.69 -7.64
-5.62 18.93 -9.21
-6.76 23.87 -11.61
-7.07 25.56 -12.44
-4.41 20.68 -10.07
-3.76 19.13 -9.31
-2.50 22.77 -11.08
-2.09 26.19 -12.74
-1.80 25.76 -12.53
-1.64 25.96 -12.63
-1.01 25.16 -12.25
-0.64 24.07 -11.71
0.44 14.81 -7.21
0.48 13.09 -6.37
1.28 13.21 -6.43
3.38 15.62 -7.60
7.31 24.11 -11.74
10.09 28.02 -13.64
10.21 25.11 -12.22
12.91 21.51 -10.47
8.13 9.38 -4.56
8.80 9.64 -4.69
9.21 9.76 -4.75
9.48 9.90 -4.82
14.38 13.70 -6.66
15.20 13.69 -6.66
14.77 13.23 -6.44
14.41 12.79 -6.23
14.23 12.37 -6.02
12.61 10.37 -5.04
13.35 10.77 -5.24
17.70 13.65 -6.64
17.70 13.58 -6.61
17.77 13.57 -6.60
17.77 13.50 -6.57
16.77 11.30 -5.50
16.73 11.18 -5.44
-13.87 9.81 -4.74
-13.56 9.74 -4.71
-13.37 9.64 -4.66
-13.32 9.63 -4.66
-12.82 9.47 -4.58
-12.79 9.47 -4.58
-12.02 9.34 -4.52
-11.49 9.07 -4.38
-11.10 8.86 -4.28
-10.87 8.72 -4.21
-9.93 8.14 -3.93
-9.90 8.20 -3.96
-9.82 8.16 -3.95
-9.75 8.12 -3.93
-9.20 7.86 -3.80
-9.08 7.83 -3.78
-8.62 7.65 -3.70
-8.25 7.46 -3.60
-8.09 7.35 -3.55
-8.71 8.83 -4.27
-8.59 8.83 -4.27
-9.03 9.85 -4.76
-8.97 10.04 -4.85
-8.82 9.95 -4.81
-8.37 9.62 -4.65
-4.21 6.31 -3.05
-4.19 6.31 -3.05
-4.11 6.26 -3.02
-3.38 6.42 -3.11
-2.96 5.97 -2.88
-2.84 5.83 -2.82
-2.77 5.81 -2.81
-2.70 5.84 -2.82
-2.63 5.85 -2.83
-2.55 5.88 -2.84
-2.54 6.04 -2.92
-3.03 7.90 -3.82
-4.62 14.28 -6.90
-6.97 25.19 -12.18
-4.48 21.01 -10.15
-4.19 20.29 -9.81
-3.83 19.50 -9.42
-2.47 24.74 -11.96
-2.41 24.94 -12.06
-2.36 25.23 -12.20
-2.10 26.20 -12.66
-1.82 25.98 -12.56
-1.65 26.08 -12.61
-1.02 25.50 -12.32
-0.65 24.43 -11.81
0.45 15.04 -7.27
0.49 13.34 -6.45
1.29 13.37 -6.46
3.35 15.46 -7.47
7.02 23.13 -11.18
9.39 26.09 -12.61
10.13 24.91 -12.04
13.08 21.80 -10.54
8.05 9.29 -4.49
8.84 9.68 -4.68
9.52 9.95 -4.81
14.20 13.53 -6.54
15.21 13.70 -6.62
14.93 13.41 -6.48
14.42 12.80 -6.19
14.24 12.39 -5.99
12.73 10.46 -5.06
13.47 10.86 -5.25
17.81 13.77 -6.66
17.84 13.69 -6.62
17.91 13.68 -6.61
17.89 13.59 -6.57
16.89 11.41 -5.51
16.88 11.38 -5.50
16.87 11.27 -5.45
-13.90 9.86 -4.73
-13.42 9.68 -4.64
-12.87 9.49 -4.55
-12.84 9.49 -4.55
-12.22 9.50 -4.56
-11.72 9.26 -4.44
-11.42 9.09 -4.36
-11.06 8.87 -4.26
-10.06 8.24 -3.96
-9.97 8.26 -3.97
-9.80 8.17 -3.92
-9.21 7.87 -3.78
-9.09 7.84 -3.76
-8.63 7.66 -3.68
-8.26 7.46 -3.58
-8.01 7.31 -3.51
-8.66 8.78 -4.21
-8.52 8.79 -4.22
-8.89 9.66 -4.64
-8.94 9.79 -4.70
-8.92 9.91 -4.76
-8.84 9.90 -4.75
-8.70 9.82 -4.71
-8.29 9.53 -4.57
-4.14 6.20 -2.98
-4.03 6.13 -2.94
-3.29 6.28 -3.02
-2.92 5.91 -2.84
-2.77 5.82 -2.79
-2.63 5.85 -2.81
-2.57 5.85 -2.81
-2.56 5.86 -2.81
-2.53 5.93 -2.85
-2.54 6.05 -2.90
-3.02 7.89 -3.79
-4.59 14.20 -6.82
-9.33 35.44 -17.01
-10.04 38.63 -18.54
-4.60 21.56 -10.35
-4.33 20.94 -10.05
-3.93 19.97 -9.58
-2.53 22.99 -11.04
-2.48 24.78 -11.89
-2.37 25.35 -12.17
-2.11 26.32 -12.63
-1.83 26.18 -12.57
-1.66 26.16 -12.56
-1.03 25.71 -12.34
-0.66 24.62 -11.82
0.46 15.28 -7.34
0.50 13.60 -6.53
1.32 13.62 -6.54
2.50 15.33 -7.36
3.29 15.18 -7.28
6.78 22.36 -10.73
7.98 23.94 -11.49
12.89 21.48 -10.31
7.83 9.03 -4.33
8.85 9.69 -4.65
9.53 9.96 -4.78
14.06 13.39 -6.43
14.91 13.39 -6.43
14.43 12.80 -6.15
14.53 12.86 -6.17
14.26 12.40 -5.95
14.18 12.22 -5.87
12.72 10.45 -5.02
13.46 10.85 -5.21
17.90 13.84 -6.64
18.02 13.68 -6.57
17.05 11.52 -5.53
17.10 11.45 -5.50
-13.95 9.89 -4.72
-13.68 9.82 -4.68
-13.54 9.74 -4.64
-12.52 9.73 -4.64
-12.42 9.68 -4.61
-11.84 9.37 -4.47
-11.60 9.23 -4.40
-11.21 8.99 -4.29
-10.17 8.34 -3.97
-10.06 8.34 -3.97
-9.35 7.94 -3.79
-9.29 7.92 -3.78
-9.25 7.90 -3.77
-9.12 7.87 -3.75
-8.72 7.72 -3.68
-8.67 7.69 -3.67
-8.30 7.50 -3.58
-8.06 7.35 -3.50
-8.62 8.74 -4.16
-8.61 8.75 -4.17
-8.49 8.76 -4.17
-8.83 9.56 -4.56
-8.82 9.58 -4.57
-8.87 9.71 -4.63
-8.80 9.82 -4.68
-8.71 9.78 -4.66
-8.55 9.67 -4.61
-8.26 9.49 -4.52
-4.06 6.11 -2.91
-3.97 6.05 -2.89
-3.27 6.24 -2.98
-2.97 5.98 -2.85
-2.76 5.82 -2.78
-2.68 5.87 -2.80
-2.61 5.85 -2.79
-2.58 5.86 -2.80
-2.55 5.93 -2.83
-2.54 6.05 -2.88
-3.02 7.88 -3.75
-9.56 36.29 -17.30
-11.80 45.99 -21.92
-4.70 22.05 -10.51
-4.44 21.51 -10.25
-4.02 20.46 -9.75
-2.58 23.45 -11.18
-2.48 24.84 -11.84
-2.37 25.43 -12.12
-2.09 26.17 -12.47
-1.83 26.11 -12.44
-1.65 25.98 -12.38
-1.03 25.73 -12.27
-0.57 24.38 -11.62
0.46 15.47 -7.37
0.51 13.78 -6.57
1.33 13.80 -6.58
2.18 15.60 -7.44
2.50 15.29 -7.29
3.21 14.83 -7.07
6.54 21.57 -10.28
7.55 22.65 -10.80
12.62 21.04 -10.03
7.66 8.84 -4.22
8.86 9.70 -4.62
9.44 9.90 -4.72
13.94 13.28 -6.33
14.88 13.37 -6.37
14.54 12.87 -6.13
14.23 12.38 -5.90
14.16 12.21 -5.82
12.63 10.38 -4.95
13.38 10.79 -5.14
17.98 13.90 -6.63
18.15 13.79 -6.57
17.88 13.51 -6.44
17.27 11.67 -5.56
17.30 11.58 -5.52
-14.02 9.94 -4.71
-14.00 9.95 -4.71
-13.88 9.94 -4.70
-13.73 9.86 -4.67
-12.71 9.90 -4.69
-12.07 9.55 -4.52
-11.42 9.16 -4.34
-10.33 8.47 -4.01
-10.27 8.44 -4.00
-10.16 8.42 -3.98
-9.37 7.96 -3.77
-9.15 7.89 -3.73
-8.80 7.76 -3.67
-8.71 7.73 -3.66
-8.66 7.71 -3.65
-8.35 7.55 -3.57
-8.13 7.42 -3.51
-8.59 8.67 -4.11
-8.55 8.70 -4.12
-8.45 8.71 -4.12
-8.78 9.61 -4.55
-8.68 9.68 -4.58
-8.60 9.67 -4.58
-8.18 9.40 -4.45
-4.01 6.05 -2.86
-3.93 5.99 -2.83
-3.25 6.20 -2.94
-2.94 5.96 -2.82
-2.91 5.93 -2.81
-2.87 5.90 -2.79
-2.75 5.85 -2.77
-2.70 5.86 -2.77
-2.67 5.88 -2.79
-2.62 5.87 -2.78
-2.57 5.97 -2.83
-2.56 6.13 -2.90
-3.00 7.82 -3.70
-9.77 37.08 -17.55
-12.16 47.40 -22.43
-4.78 22.43 -10.62
-4.09 20.78 -9.84
-2.64 23.96 -11.34
-2.52 24.41 -11.56
-2.37 25.36 -12.00
-1.82 25.94 -12.28
-1.63 25.80 -12.21
-1.03 25.86 -12.24
-0.58 24.84 -11.76
0.47 15.66 -7.41
0.51 13.97 -6.61
1.35 13.97 -6.61
2.20 15.69 -7.43
2.47 15.14 -7.17
3.18 14.66 -6.94
6.37 21.23 -10.05
7.10 21.29 -10.08
12.42 20.70 -9.80
7.83 9.04 -4.28
8.87 9.71 -4.60
9.45 9.91 -4.69
13.73 13.08 -6.19
14.93 13.41 -6.35
14.61 12.93 -6.12
14.15 12.20 -5.78
12.59 10.35 -4.90
13.41 10.81 -5.12
18.02 13.94 -6.60
18.33 13.92 -6.59
18.16 13.72 -6.50
17.39 11.78 -5.57
17.33 11.71 -5.54
17.33 11.60 -5.49
-14.16 10.09 -4.74
-14.12 10.09 -4.74
-14.02 10.04 -4.72
-12.90 10.05 -4.72
-12.28 9.72 -4.57
-11.49 9.24 -4.34
-10.42 8.58 -4.03
-10.24 8.49 -3.99
-9.48 8.03 -3.77
-9.42 8.00 -3.76
-9.17 7.90 -3.71
-8.94 7.84 -3.68
-8.87 7.80 -3.67
-8.82 7.78 -3.66
-8.69 7.73 -3.63
-8.64 7.71 -3.62
-8.33 7.55 -3.55
-8.23 7.50 -3.53
-8.58 8.64 -4.06
-8.56 8.64 -4.06
-8.51 8.66 -4.07
-8.49 8.66 -4.07
-8.41 8.67 -4.08
-8.65 9.37 -4.41
-8.65 9.40 -4.42
-8.66 9.44 -4.44
-8.69 9.51 -4.47
-8.57 9.56 -4.49
-8.51 9.57 -4.50
-8.10 9.31 -4.38
-3.98 6.00 -2.82
-3.90 5.94 -2.79
-3.22 6.15 -2.89
-3.09 6.07 -2.85
-2.89 5.95 -2.79
-2.76 5.87 -2.76
-2.71 5.89 -2.77
-2.68 5.92 -2.78
-2.62 5.91 -2.78
-2.61 5.92 -2.78
-2.60 5.94 -2.79
-2.59 6.02 -2.83
-2.57 6.12 -2.88
-2.57 6.17 -2.90
-2.98 7.77 -3.65
-10.01 38.02 -17.87
-12.67 49.37 -23.21
-15.31 60.42 -28.40
-4.85 22.71 -10.67
-4.10 20.86 -9.80
-3.48 19.69 -9.25
-2.66 24.19 -11.37
-2.53 24.53 -11.53
-1.82 25.94 -12.19
-1.64 25.91 -12.18
-1.05 26.15 -12.29
-0.60 25.50 -11.99
0.48 15.88 -7.46
0.52 14.19 -6.67
1.37 14.18 -6.67
2.22 15.85 -7.45
2.47 15.13 -7.11
2.52 15.10 -7.09
3.12 14.41 -6.77
6.21 20.69 -9.73
6.65 19.94 -9.37
12.30 20.50 -9.64
8.13 9.38 -4.41
8.88 9.72 -4.57
9.45 9.91 -4.66
13.23 12.64 -5.94
15.02 13.49 -6.34
14.78 13.24 -6.22
14.73 13.15 -6.18
14.68 13.07 -6.14
14.70 13.01 -6.12
14.14 12.19 -5.73
12.71 10.45 -4.91
14.08 11.32 -5.32
18.14 14.03 -6.59
18.62 14.14 -6.65
18.55 14.02 -6.59
17.31 11.70 -5.50
17.28 11.57 -5.44
-14.41 10.27 -4.79
-12.46 9.86 -4.60
-12.30 9.76 -4.55
-12.03 9.60 -4.48
-11.66 9.38 -4.38
-10.60 8.73 -4.08
-10.35 8.57 -4.00
-9.47 8.07 -3.76
-9.25 7.97 -3.72
-9.21 7.96 -3.71
-8.98 7.88 -3.68
-8.85 7.81 -3.64
-8.80 7.79 -3.63
-8.35 7.57 -3.53
-8.27 7.54 -3.52
-8.63 8.63 -4.03
-8.61 8.64 -4.03
-8.58 8.64 -4.03
-8.48 8.65 -4.04
-8.40 8.66 -4.04
-8.61 9.43 -4.40
-8.49 9.47 -4.42
-8.46 9.47 -4.42
-8.43 9.48 -4.42
-8.04 9.25 -4.32
-7.73 9.21 -4.30
-3.96 5.97 -2.79
-3.89 5.92 -2.76
-3.86 5.90 -2.75
-3.20 6.11 -2.85
-3.09 6.07 -2.83
-2.92 5.99 -2.80
-2.78 5.91 -2.76
-2.75 5.94 -2.77
-2.71 6.01 -2.81
-2.64 6.05 -2.82
-2.64 6.08 -2.84
-2.62 6.14 -2.87
-2.61 6.22 -2.90
-2.96 7.73 -3.61
-11.24 43.21 -20.17
-16.02 63.25 -29.52
-4.90 22.97 -10.72
-4.13 21.01 -9.80
-3.51 19.85 -9.26
-2.64 23.98 -11.19
-2.50 24.15 -11.27
-1.78 25.48 -11.89
-1.62 25.60 -11.95
-1.22 26.22 -12.24
-1.04 26.12 -12.19
-0.61 26.00 -12.13
0.49 16.18 -7.55
0.53 14.45 -6.74
1.39 14.33 -6.69
2.24 16.03 -7.48
2.49 15.23 -7.11
2.57 15.14 -7.07
3.09 14.28 -6.66
6.15 20.49 -9.56
6.18 18.73 -8.74
12.27 20.45 -9.54
8.20 9.47 -4.42
8.87 9.72 -4.53
9.44 9.91 -4.62
9.52 9.96 -4.65
13.07 12.49 -5.83
15.13 13.59 -6.34
14.76 13.14 -6.13
14.77 13.07 -6.10
14.10 12.16 -5.67
13.00 10.68 -4.98
14.47 11.64 -5.43
18.35 14.19 -6.62
18.90 14.36 -6.70
18.95 14.32 -6.68
17.23 11.54 -5.38
-14.81 10.45 -4.84
-14.78 10.46 -4.85
-14.67 10.43 -4.83
-14.64 10.44 -4.84
-13.52 10.21 -4.73
-13.01 10.16 -4.71
-12.36 9.81 -4.54
-12.10 9.65 -4.47
-11.76 9.46 -4.38
-10.73 8.84 -4.10
-10.60 8.76 -4.06
-10.43 8.64 -4.00
-9.57 8.16 -3.78
-9.50 8.12 -3.76
-9.35 8.06 -3.73
-8.99 7.89 -3.65
-8.85 7.81 -3.62
-8.69 7.73 -3.58
-8.62 7.69 -3.56
-8.43 7.59 -3.52
-8.32 7.54 -3.49
-8.24 7.51 -3.48
-8.67 8.61 -3.99
-8.66 8.63 -4.00
-8.63 8.63 -4.00
-8.48 8.65 -4.01
-8.40 8.69 -4.03
-8.52 9.26 -4.29
-8.51 9.29 -4.30
-8.52 9.33 -4.32
-8.41 9.38 -4.34
-8.34 9.37 -4.34
-8.01 9.17 -4.25
-7.98 9.18 -4.25
-7.69 9.15 -4.24
-3.94 5.93 -2.75
-3.83 5.87 -2.72
-3.68 6.38 -2.96
-3.16 6.04 -2.80
-3.08 6.03 -2.79
-2.80 5.95 -2.76
-2.78 6.00 -2.78
-2.72 6.10 -2.82
-2.67 6.16 -2.85
-2.64 6.29 -2.91
-2.96 7.71 -3.57
-13.73 53.51 -24.79
-17.22 67.97 -31.49
-5.01 23.50 -10.89
-4.21 21.43 -9.93
-3.57 20.23 -9.37
-2.59 23.56 -10.91
-2.45 23.67 -10.97
-2.33 24.09 -11.16
-1.82 24.84 -11.51
-1.60 25.29 -11.72
-1.21 26.04 -12.06
-1.04 26.04 -12.07
-0.52 25.87 -11.99
0.49 16.43 -7.61
0.54 14.71 -6.82
1.18 13.64 -6.32
1.40 14.50 -6.72
2.18 16.33 -7.57
2.27 16.18 -7.50
2.49 15.25 -7.07
2.58 15.16 -7.02
3.10 14.33 -6.64
3.15 14.33 -6.64
6.17 20.57 -9.53
6.20 18.80 -8.71
12.28 20.47 -9.49
8.18 9.47 -4.39
8.87 9.71 -4.50
9.29 9.84 -4.56
13.05 12.47 -5.78
14.82 13.19 -6.11
14.80 13.10 -6.07
14.03 12.10 -5.60
13.30 10.93 -5.06
14.77 11.88 -5.50
18.62 14.39 -6.67
19.23 14.57 -6.75
17.18 11.51 -5.33
-14.88 10.55 -4.85
-14.81 10.53 -4.84
-13.77 10.43 -4.80
-13.11 10.27 -4.72
-12.42 9.86 -4.53
-12.16 9.70 -4.46
-11.84 9.52 -4.38
-10.80 8.90 -4.09
-9.55 8.16 -3.75
-9.49 8.13 -3.74
-9.38 8.08 -3.72
-8.96 7.86 -3.62
-8.89 7.83 -3.60
-8.70 7.74 -3.56
-8.56 7.66 -3.53
-8.50 7.63 -3.51
-8.45 7.62 -3.50
-8.35 7.57 -3.48
-8.27 7.54 -3.47
-8.68 8.62 -3.97
-8.48 8.65 -3.98
-8.40 8.69 -4.00
-8.33 9.29 -4.28
-7.93 9.11 -4.19
-7.63 9.08 -4.18
-3.90 5.88 -2.71
-3.84 5.84 -2.69
-3.81 5.83 -2.68
-3.63 6.29 -2.89
-3.14 6.00 -2.76
-3.11 5.99 -2.75
-3.05 5.99 -2.76
-2.82 5.96 -2.74
-2.80 6.04 -2.78
-2.71 6.26 -2.88
-2.68 6.38 -2.94
-2.95 7.69 -3.54
-5.18 24.30 -11.18
-4.32 21.96 -10.10
-3.67 20.75 -9.55
-2.54 23.07 -10.61
-2.41 23.30 -10.72
-2.30 23.80 -10.95
-1.81 24.63 -11.33
-1.59 25.13 -11.56
-1.21 26.03 -11.97
-1.04 26.00 -11.96
-0.52 25.80 -11.87
0.50 16.59 -7.63
0.55 14.91 -6.86
1.20 13.80 -6.35
1.42 14.68 -6.75
2.19 16.44 -7.56
2.28 16.28 -7.49
2.51 15.36 -7.07
2.58 15.18 -6.98
3.16 14.36 -6.61
6.12 20.39 -9.38
6.18 18.74 -8.62
8.19 20.99 -9.66
12.26 21.38 -9.84
12.32 20.53 -9.44
8.21 9.47 -4.36
8.85 9.69 -4.46
9.28 9.83 -4.52
9.32 9.84 -4.53
9.36 9.85 -4.53
9.42 9.88 -4.55
9.50 9.93 -4.57
9.56 9.96 -4.58
13.06 12.48 -5.74
14.77 13.14 -6.05
14.77 13.07 -6.01
13.94 12.02 -5.53
13.22 10.90 -5.01
14.97 12.04 -5.54
18.79 14.53 -6.68
19.43 14.76 -6.79
17.15 11.49 -5.28
-14.97 10.62 -4.85
-14.01 10.62 -4.85
-13.14 10.29 -4.70
-12.97 10.22 -4.66
-12.53 9.95 -4.54
-12.26 9.78 -4.47
-11.95 9.61 -4.39
-11.51 9.33 -4.26
-10.88 8.97 -4.09
-9.51 8.15 -3.72
-9.45 8.13 -3.71
-9.39 8.09 -3.70
-8.83 7.86 -3.59
-8.57 7.72 -3.53
-8.48 7.69 -3.51
-8.41 7.66 -3.50
-8.69 8.63 -3.94
-8.48 8.65 -3.95
-8.40 8.69 -3.97
-7.84 9.01 -4.12
-7.56 9.00 -4.11
-3.86 5.82 -2.66
-3.80 5.79 -2.64
-3.61 5.92 -2.71
-3.58 6.21 -2.84
-3.56 6.32 -2.89
-3.12 6.00 -2.74
-3.06 6.00 -2.74
-2.84 6.03 -2.76
-2.75 6.35 -2.90
-2.72 6.47 -2.95
-2.95 7.68 -3.51
-5.36 25.14 -11.48
-4.82 23.69 -10.82
-4.43 22.53 -10.29
-3.76 21.31 -9.73
-2.46 22.41 -10.23
-2.35 22.73 -10.38
-2.24 23.22 -10.61
-1.77 24.20 -11.05
-1.57 24.73 -11.29
-1.20 25.78 -11.77
-1.03 25.74 -11.75
-0.51 25.37 -11.59
0.50 16.75 -7.65
0.56 15.20 -6.94
1.22 14.13 -6.45
1.36 14.55 -6.65
2.20 16.47 -7.52
2.29 16.34 -7.46
2.52 15.43 -7.05
2.58 15.18 -6.93
3.16 14.37 -6.56
6.03 20.10 -9.18
6.11 18.52 -8.46
8.10 20.76 -9.48
12.21 21.54 -9.84
12.46 21.86 -9.98
12.62 22.01 -10.05
12.30 20.50 -9.36
8.18 9.48 -4.33
8.85 9.69 -4.42
9.27 9.83 -4.49
13.06 12.48 -5.70
13.17 12.55 -5.73
14.73 13.11 -5.99
14.71 13.02 -5.95
13.26 10.93 -4.99
14.72 11.87 -5.42
18.73 14.48 -6.61
19.49 14.81 -6.76
17.16 11.49 -5.25
-15.52 10.93 -4.95
-15.28 10.81 -4.90
-15.14 10.73 -4.87
-14.24 10.79 -4.89
-13.14 10.30 -4.67
-13.14 10.35 -4.69
-12.68 10.06 -4.56
-12.40 9.89 -4.48
-12.30 9.84 -4.46
-11.96 9.64 -4.37
-11.64 9.43 -4.28
-10.98 9.05 -4.10
-9.57 8.20 -3.72
-8.95 7.97 -3.61
-8.89 7.93 -3.60
-8.65 7.79 -3.53
-8.70 8.64 -3.92
-8.57 8.65 -3.92
-8.48 8.65 -3.92
-8.39 8.68 -3.94
-7.73 8.89 -4.03
-3.84 5.78 -2.62
-3.81 5.78 -2.62
-3.76 5.75 -2.61
-3.63 5.89 -2.67
-3.59 5.88 -2.67
-3.53 6.09 -2.76
-3.54 6.28 -2.85
-3.23 6.10 -2.76
-3.13 6.01 -2.73
-3.07 6.02 -2.73
-2.86 6.08 -2.76
-2.78 6.48 -2.94
-2.75 6.55 -2.97
-2.95 7.68 -3.48
-5.52 25.88 -11.73
-4.92 24.20 -10.97
-4.53 23.02 -10.44
-3.84 21.75 -9.86
-2.42 22.04 -9.99
-2.32 22.43 -10.17
-2.20 22.81 -10.34
-1.74 23.72 -10.75
-1.54 24.27 -11.00
-1.18 25.30 -11.47
-1.01 25.32 -11.48
-0.50 24.87 -11.27
0.51 16.98 -7.70
0.57 15.56 -7.05
1.46 15.13 -6.86
2.19 16.44 -7.45
2.29 16.39 -7.43
2.53 15.51 -7.03
2.59 15.24 -6.91
3.16 14.35 -6.50
5.94 19.80 -8.98
5.92 18.11 -8.21
6.48 18.71 -8.48
8.08 20.71 -9.39
12.16 21.46 -9.73
12.13 20.22 -9.17
8.18 9.48 -4.30
8.84 9.68 -4.39
9.28 9.84 -4.46
9.32 9.85 -4.46
9.36 9.85 -4.47
9.43 9.89 -4.48
13.01 12.43 -5.64
13.25 12.58 -5.70
14.99 13.34 -6.05
14.74 13.00 -5.90
13.27 10.94 -4.96
14.76 11.91 -5.40
17.99 13.94 -6.32
18.47 14.28 -6.48
19.36 14.70 -6.66
17.19 11.51 -5.22
-15.48 10.93 -4.92
-15.30 10.83 -4.87
